-0.022131 -0.197045 -1.272063 
-0.029505 -0.201523 -1.275276 
-0.006107 -0.203864 -1.271015 
-0.062583 -0.199586 -1.276036 
-0.012643 -0.207810 -1.272731 
-0.022561 -0.204060 -1.275391 
-0.046552 -0.207882 -1.274927 
-0.064280 -0.206839 -1.277070 
-0.057717 -0.204650 -1.277034 
-0.046358 -0.203081 -1.274863 
-0.032341 -0.103823 -1.114923 
-0.034431 -0.107151 -1.118946 
-0.027247 -0.117923 -1.128437 
-0.037671 -0.115598 -1.125942 
-0.003863 -0.120660 -1.147029 
-0.001501 -0.119337 -1.149566 
-0.036396 -0.128862 -1.134126 
-0.061745 -0.127187 -1.137973 
-0.054552 -0.120509 -1.134724 
-0.044677 -0.124570 -1.132521 
-0.048231 -0.139160 -1.133849 
-0.038783 -0.134696 -1.135652 
-0.045575 -0.129480 -1.134297 
-0.007907 -0.135332 -1.148101 
-0.001178 -0.134062 -1.153638 
-0.042688 -0.139138 -1.134499 
-0.048254 -0.133157 -1.134873 
-0.063366 -0.134166 -1.136983 
-0.080238 -0.129835 -1.142182 
-0.073509 -0.143631 -1.132787 
-0.022419 -0.136701 -1.139112 
-0.052054 -0.147662 -1.129630 
-0.031875 -0.138495 -1.137894 
0.048236 -0.156979 -1.163170 
-0.057708 -0.162673 -1.126539 
-0.064296 -0.148950 -1.129914 
-0.034086 -0.150969 -1.131532 
-0.023785 -0.155595 -1.131304 
-0.070402 -0.165781 -1.128536 
-0.060699 -0.181123 -1.124368 
-0.083694 -0.190024 -1.126865 
-0.111589 -0.177909 -1.138173 
-0.038678 -0.165565 -1.127350 
0.005097 -0.195445 -1.129135 
-0.009168 -0.188040 -1.127549 
-0.097570 -0.180986 -1.132092 
-0.105288 -0.196897 -1.132946 
-0.014108 -0.199723 -1.124003 
-0.035533 -0.199629 -1.124122 
-0.028694 -0.191408 -1.124647 
0.057192 -0.198974 -1.167922 
-0.051092 -0.189181 -1.122948 
-0.067759 -0.202919 -1.122516 
0.057494 -0.211095 -1.171625 
-0.055937 -0.206474 -1.122373 
-0.022760 -0.221816 -1.122831 
-0.014955 -0.213241 -1.122533 
0.042643 -0.219808 -1.188241 
0.045284 -0.215612 -1.183510 
-0.002145 -0.227995 -1.125747 
0.007105 -0.217769 -1.127797 
-0.002774 -0.211961 -1.124363 
0.047934 -0.213933 -1.179843 
0.066764 -0.219796 -1.173087 
0.066187 -0.230808 -1.175976 
-0.013949 -0.225069 -1.123223 
-0.078668 -0.222686 -1.125280 
-0.078702 -0.211388 -1.124171 
-0.061748 -0.220103 -1.122982 
0.042805 -0.231448 -1.193017 
0.044811 -0.223240 -1.188179 
-0.095957 -0.226417 -1.131132 
0.053972 -0.225597 -1.178420 
-0.099603 -0.228399 -1.133158 
-0.066196 -0.228149 -1.125019 
-0.042869 -0.221300 -1.125502 
0.064922 -0.235607 -1.178367 
-0.056791 -0.238502 -1.127998 
-0.034892 -0.221041 -1.124654 
-0.083453 -0.237705 -1.130015 
-0.024120 -0.240042 -1.126773 
-0.006724 -0.246370 -1.130190 
-0.006321 -0.240965 -1.128118 
-0.027272 -0.246026 -1.129237 
-0.043511 -0.245593 -1.131216 
-0.091801 -0.245159 -1.135987 
-0.158372 -0.137991 -1.166201 
-0.164891 -0.164568 -1.167412 
-0.157299 -0.165722 -1.160124 
-0.151128 -0.158729 -1.154663 
-0.156884 -0.153105 -1.158032 
-0.131405 -0.157928 -1.148214 
-0.125728 -0.179964 -1.146092 
-0.134860 -0.178443 -1.151286 
-0.131792 -0.175085 -1.149668 
-0.137992 -0.190398 -1.155817 
-0.167108 -0.181277 -1.173209 
-0.169736 -0.171735 -1.175606 
-0.119356 -0.192205 -1.140688 
-0.148316 -0.187930 -1.160728 
-0.129162 -0.187003 -1.148368 
-0.137461 -0.195673 -1.158722 
-0.147520 -0.200757 -1.165352 
-0.141713 -0.193478 -1.159768 
-0.129416 -0.198413 -1.151193 
-0.118379 -0.198512 -1.140437 
-0.135454 -0.204176 -1.166610 
-0.137503 -0.200397 -1.163718 
-0.130560 -0.208788 -1.164556 
-0.142819 -0.203992 -1.166012 
-0.137533 -0.202002 -1.165205 
-0.130528 -0.204753 -1.157948 
-0.148247 -0.194743 -1.163191 
-0.159076 -0.222362 -1.175807 
-0.129468 -0.211718 -1.169495 
-0.125815 -0.215129 -1.160750 
-0.173351 -0.188015 -1.185318 
-0.128522 -0.212878 -1.176276 
-0.119481 -0.221758 -1.155819 
-0.161943 -0.196633 -1.172628 
-0.169447 -0.199547 -1.181588 
-0.123362 -0.221320 -1.174059 
-0.127795 -0.214134 -1.177042 
-0.117972 -0.219074 -1.149278 
-0.141938 -0.231459 -1.178280 
-0.112435 -0.230945 -1.147333 
-0.114502 -0.239448 -1.153636 
-0.148757 -0.221954 -1.173588 
-0.125676 -0.229891 -1.186460 
-0.165210 -0.216323 -1.179789 
-0.147746 -0.232820 -1.178088 
-0.022408 -0.112864 -1.125427 
-0.112979 -0.220590 -1.143042 
-0.104688 -0.220735 -1.135619 
-0.100858 -0.242944 -1.139166 
-0.132301 -0.205290 -1.242198 
-0.138123 -0.197130 -1.233398 
-0.154726 -0.130527 -1.179186 
-0.145376 -0.123034 -1.175635 
-0.153917 -0.130401 -1.170197 
-0.155747 -0.131350 -1.174229 
-0.163642 -0.143264 -1.175736 
-0.166870 -0.154635 -1.173626 
-0.165509 -0.154641 -1.201760 
-0.171701 -0.163393 -1.190427 
-0.163777 -0.145141 -1.183853 
-0.175437 -0.179494 -1.195745 
-0.172729 -0.167101 -1.185055 
-0.175254 -0.185391 -1.190533 
-0.172427 -0.178911 -1.210566 
-0.176069 -0.194663 -1.198393 
-0.173631 -0.204120 -1.214967 
-0.175138 -0.187680 -1.205496 
-0.175236 -0.212307 -1.205991 
-0.170083 -0.189885 -1.220395 
-0.116171 -0.229931 -1.153531 
-0.119977 -0.225500 -1.163340 
-0.169598 -0.212003 -1.185284 
-0.171220 -0.217097 -1.224271 
-0.174375 -0.221969 -1.198896 
-0.145170 -0.216296 -1.236322 
-0.149050 -0.204628 -1.236002 
-0.134420 -0.141793 -1.224797 
-0.153242 -0.150614 -1.216282 
-0.151017 -0.156511 -1.221813 
-0.138192 -0.157651 -1.230701 
-0.140588 -0.161876 -1.229736 
-0.160658 -0.155645 -1.212568 
-0.141950 -0.170896 -1.228138 
-0.144386 -0.157303 -1.226079 
-0.166251 -0.163962 -1.211330 
-0.170366 -0.165926 -1.204061 
-0.158202 -0.174165 -1.226481 
-0.161081 -0.165656 -1.220133 
-0.166979 -0.178965 -1.220863 
-0.145653 -0.167900 -1.227249 
-0.140640 -0.167323 -1.230550 
-0.164732 -0.184459 -1.225894 
-0.121251 -0.155395 -1.241925 
-0.137492 -0.185898 -1.238729 
-0.147162 -0.162433 -1.225892 
-0.131074 -0.187146 -1.246515 
-0.133809 -0.178171 -1.242373 
-0.141375 -0.185328 -1.230320 
-0.120467 -0.182417 -1.254517 
-0.158848 -0.186132 -1.230136 
-0.160849 -0.199615 -1.232322 
-0.126172 -0.208677 -1.250762 
-0.163830 -0.209343 -1.232617 
-0.138362 -0.203382 -1.233120 
-0.155547 -0.202245 -1.235066 
-0.134156 -0.214931 -1.235057 
-0.168384 -0.208429 -1.227938 
-0.165777 -0.216939 -1.231791 
-0.154932 -0.215151 -1.237476 
-0.168611 -0.219269 -1.226151 
-0.076626 -0.196453 -1.272569 
-0.076863 -0.203180 -1.275959 
-0.076590 -0.207105 -1.275639 
-0.071198 -0.203570 -1.277401 
-0.075920 -0.097868 -1.206559 
-0.114435 -0.113743 -1.210616 
-0.131501 -0.119013 -1.201655 
-0.100215 -0.112886 -1.220000 
-0.107427 -0.119646 -1.222676 
-0.106258 -0.158277 -1.252022 
-0.113602 -0.147273 -1.242276 
-0.112459 -0.165674 -1.252608 
-0.111172 -0.184020 -1.259963 
-0.110085 -0.206563 -1.264329 
-0.111817 -0.208681 -1.263067 
0.005697 -0.115023 -1.157872 
-0.000524 -0.119940 -1.153017 
0.059258 -0.124619 -1.189554 
0.083440 -0.174172 -1.216629 
0.076947 -0.155397 -1.215038 
0.057833 -0.163638 -1.232990 
0.069274 -0.153760 -1.222230 
0.048220 -0.169440 -1.240490 
0.054772 -0.179430 -1.236829 
0.070032 -0.175497 -1.230682 
0.013360 -0.188471 -1.264794 
0.038057 -0.163277 -1.245145 
0.052885 -0.191435 -1.234996 
0.090311 -0.203831 -1.216811 
0.078916 -0.176275 -1.223845 
0.071221 -0.187105 -1.233062 
0.049477 -0.177955 -1.240524 
0.048989 -0.189877 -1.240064 
0.030793 -0.194699 -1.255287 
0.022790 -0.206283 -1.263247 
0.045876 -0.212010 -1.239859 
0.038920 -0.204501 -1.248627 
0.087925 -0.203773 -1.221447 
0.048741 -0.216436 -1.233282 
0.016899 -0.198810 -1.265383 
0.025832 -0.212600 -1.260450 
0.041640 -0.217630 -1.244102 
0.041554 -0.214668 -1.245678 
0.029361 -0.208316 -1.258106 
0.082817 -0.212209 -1.229788 
0.088644 -0.217986 -1.223591 
0.072883 -0.220014 -1.236609 
0.073463 -0.210975 -1.236438 
0.079296 -0.214250 -1.233423 
0.033188 -0.233630 -1.167238 
0.004651 -0.099702 -1.193647 
0.009132 -0.101578 -1.198959 
0.002136 -0.108835 -1.176726 
0.003379 -0.114810 -1.164979 
0.001908 -0.118687 -1.168993 
0.003829 -0.108223 -1.168338 
0.005097 -0.125047 -1.167443 
0.005304 -0.102253 -1.189672 
0.002107 -0.118331 -1.160764 
0.027499 -0.110875 -1.195922 
0.057384 -0.127726 -1.179338 
0.048996 -0.118072 -1.199572 
0.050138 -0.119895 -1.190206 
0.066921 -0.133236 -1.182599 
0.065032 -0.137003 -1.174363 
0.065322 -0.129205 -1.190693 
0.077704 -0.145794 -1.199435 
0.075124 -0.141117 -1.193046 
0.069768 -0.134978 -1.201740 
0.071940 -0.140509 -1.181939 
0.070280 -0.143864 -1.176006 
0.078642 -0.157165 -1.182871 
0.079991 -0.152156 -1.191204 
0.085843 -0.176518 -1.189344 
0.081264 -0.157025 -1.206955 
0.086748 -0.176603 -1.210922 
0.087435 -0.186109 -1.188906 
0.084940 -0.165503 -1.201342 
0.090434 -0.191532 -1.198461 
0.048925 -0.205440 -1.160150 
0.089901 -0.187424 -1.206835 
0.091164 -0.206558 -1.197702 
0.031140 -0.230740 -1.155880 
0.092195 -0.208498 -1.211049 
0.091661 -0.223661 -1.210659 
0.091067 -0.225089 -1.203486 
0.090341 -0.227447 -1.208785 
0.090581 -0.223635 -1.219425 
0.049171 -0.210566 -1.169848 
0.052611 -0.205352 -1.169613 
0.042195 -0.218638 -1.182555 
0.033352 -0.235292 -1.177539 
0.034008 -0.163388 -1.158178 
0.044079 -0.170167 -1.159383 
0.073555 -0.154498 -1.176241 
0.022849 -0.181587 -1.140237 
0.052875 -0.178089 -1.161495 
0.074088 -0.176589 -1.174831 
0.065438 -0.175089 -1.169291 
0.065372 -0.186454 -1.167852 
0.052621 -0.170076 -1.163108 
0.040049 -0.190937 -1.147070 
0.022775 -0.197297 -1.135878 
0.052629 -0.188990 -1.159085 
0.037173 -0.185080 -1.146430 
0.074470 -0.204433 -1.173232 
0.059440 -0.191586 -1.165279 
0.057097 -0.184749 -1.163115 
0.045430 -0.197763 -1.151563 
0.052686 -0.194990 -1.160130 
0.057601 -0.194576 -1.165326 
0.018013 -0.223868 -1.134681 
0.036662 -0.205325 -1.145257 
0.054536 -0.207923 -1.172004 
0.032180 -0.200662 -1.141170 
0.059131 -0.201340 -1.168086 
0.055441 -0.202983 -1.170344 
0.052888 -0.206225 -1.172631 
0.053409 -0.202148 -1.165445 
0.082284 -0.179003 -1.182534 
0.079762 -0.210631 -1.177549 
0.072043 -0.223430 -1.174657 
0.046523 -0.213971 -1.180485 
0.035247 -0.221471 -1.155156 
0.038940 -0.222885 -1.176350 
0.036335 -0.226434 -1.171358 
0.037485 -0.222583 -1.164821 
0.028034 -0.221487 -1.143241 
0.087192 -0.205388 -1.187070 
0.075949 -0.221829 -1.175663 
0.038848 -0.227130 -1.195746 
0.040915 -0.222741 -1.191192 
0.027370 -0.236071 -1.148789 
0.022929 -0.227683 -1.139740 
0.085378 -0.224859 -1.187176 
0.015097 -0.232707 -1.132782 
0.027720 -0.230207 -1.147778 
0.038359 -0.225993 -1.193857 
0.011240 -0.241719 -1.135079 
0.012027 -0.231381 -1.131149 
0.023477 -0.244034 -1.147206 
0.021301 -0.244270 -1.144261 
0.018984 -0.232370 -1.135746 
0.072385 -0.235864 -1.180305 
0.087796 -0.228540 -1.193178 
0.082094 -0.230107 -1.184298 
0.075464 -0.232568 -1.179547 
0.021418 0.022390 -1.048726 
0.003460 0.017788 -1.049805 
0.037721 0.022343 -1.050912 
0.047501 0.021069 -1.051472 
0.013148 0.020467 -1.049153 
-0.006584 0.018235 -1.051142 
-0.011157 0.023825 -1.054579 
0.061406 0.022136 -1.059848 
0.050857 0.027062 -1.057532 
-0.006058 0.021169 -1.052781 
0.021555 0.027994 -1.053031 
0.006584 0.030067 -1.057082 
0.044541 0.032882 -1.059225 
-0.004505 0.025654 -1.058742 
0.003785 0.023630 -1.053305 
-0.003449 0.021786 -1.055265 
-0.008535 0.024955 -1.056081 
-0.016785 0.020102 -1.057164 
0.032481 0.038772 -1.060021 
-0.011037 0.027114 -1.060775 
-0.021883 0.024422 -1.059054 
-0.020100 0.026895 -1.065178 
-0.023878 0.028172 -1.067242 
-0.019481 0.024915 -1.060282 
0.060523 0.026303 -1.063810 
-0.026296 0.026598 -1.061904 
0.041329 0.043350 -1.067305 
-0.027009 0.028335 -1.065647 
-0.023330 0.027477 -1.062791 
0.069617 0.035403 -1.064493 
-0.033146 0.023839 -1.066424 
-0.002292 0.047662 -1.067647 
-0.008152 0.036800 -1.064017 
0.066505 0.037198 -1.064799 
-0.023750 0.031187 -1.070476 
-0.022303 0.029502 -1.067211 
-0.029117 0.027809 -1.070047 
0.058430 0.032778 -1.067283 
0.030171 0.044657 -1.064031 
0.022656 0.042920 -1.061488 
-0.036353 0.024207 -1.067843 
-0.033209 0.026055 -1.069789 
-0.030338 0.027898 -1.072868 
0.047359 0.035915 -1.062677 
-0.032670 0.026344 -1.072532 
0.055787 0.033314 -1.068002 
0.062934 0.040314 -1.069380 
0.066191 0.041431 -1.069208 
0.011763 0.047990 -1.066444 
-0.002956 0.042350 -1.063705 
0.058013 0.036908 -1.071966 
0.036278 0.046933 -1.069147 
0.022995 0.049880 -1.066670 
0.048818 0.041825 -1.071745 
0.057969 0.040577 -1.080455 
0.044663 0.045107 -1.071748 
0.000944 0.054062 -1.073252 
-0.040193 0.025909 -1.072700 
0.005214 0.047564 -1.065624 
0.057017 0.038460 -1.074956 
0.059864 0.040417 -1.079879 
-0.044497 0.025085 -1.083145 
-0.042165 0.026122 -1.081649 
0.066264 0.043542 -1.074866 
0.021161 0.054082 -1.071257 
0.030398 0.050773 -1.069704 
0.069702 0.043143 -1.073543 
-0.000932 0.051306 -1.071625 
-0.036152 0.039343 -1.081327 
-0.007779 0.057369 -1.079865 
-0.011059 0.056665 -1.079382 
0.040792 0.053220 -1.077984 
0.014904 0.054477 -1.070176 
0.045975 0.052745 -1.082854 
0.050115 0.045045 -1.077902 
0.059041 0.041286 -1.085769 
-0.049750 0.024871 -1.084822 
0.004944 0.058156 -1.074968 
0.051182 0.050498 -1.085309 
0.079548 0.030369 -1.094947 
0.066343 0.041736 -1.089587 
0.066423 0.043689 -1.079409 
0.022568 0.056540 -1.074638 
0.028241 0.055550 -1.076206 
-0.057407 0.022976 -1.092246 
-0.059734 0.023825 -1.098075 
-0.061762 0.020622 -1.094955 
0.035464 0.057359 -1.080811 
-0.052844 0.024322 -1.092574 
0.044805 0.056386 -1.090672 
-0.054569 0.025589 -1.099035 
-0.018202 0.054659 -1.079785 
0.078002 0.039956 -1.099092 
0.070544 0.042678 -1.094539 
-0.022686 0.058631 -1.087623 
0.048131 0.055486 -1.096056 
0.001528 0.066291 -1.087844 
0.067690 0.043135 -1.095543 
0.054611 0.047748 -1.090056 
-0.033430 0.051545 -1.088033 
0.038356 0.059299 -1.086517 
0.074779 0.040903 -1.101549 
-0.002885 0.064379 -1.084609 
0.011097 0.064548 -1.085496 
0.006309 0.063046 -1.082034 
0.066281 0.041485 -1.099913 
0.023489 0.064300 -1.088567 
0.015932 0.065070 -1.086703 
0.079044 0.037893 -1.102109 
0.087124 0.037606 -1.104073 
-0.061021 0.021838 -1.101876 
-0.016511 0.061526 -1.089006 
0.070913 0.039130 -1.104034 
0.076502 0.038644 -1.103890 
0.074296 0.038142 -1.109889 
-0.028456 0.057750 -1.091210 
0.000657 0.068598 -1.092855 
-0.010082 0.065399 -1.089387 
0.011116 0.068049 -1.092522 
0.077995 0.036761 -1.115178 
-0.021657 0.063374 -1.098480 
-0.063947 0.022259 -1.114556 
-0.064046 0.022548 -1.111326 
-0.010664 0.067986 -1.098545 
-0.065921 0.020701 -1.125257 
-0.017499 0.066942 -1.102140 
0.019636 0.070538 -1.107185 
-0.013669 0.069023 -1.105889 
0.026997 0.065481 -1.092812 
0.080958 0.035416 -1.117693 
0.001126 0.072890 -1.108905 
0.000402 0.071249 -1.105175 
-0.032081 0.061461 -1.114252 
-0.031020 0.060617 -1.104405 
0.044071 0.062040 -1.108947 
-0.037796 0.057375 -1.115255 
-0.042782 0.054450 -1.112945 
-0.038919 0.057116 -1.107544 
0.041761 0.065243 -1.120610 
-0.013380 0.070788 -1.111494 
-0.008113 0.072559 -1.115412 
0.027529 0.071428 -1.127305 
0.060346 0.053992 -1.121879 
0.000606 0.073143 -1.111816 
0.068795 0.047630 -1.123321 
-0.059742 0.018325 -1.139435 
-0.020957 0.066174 -1.112466 
-0.035393 0.060080 -1.122337 
0.008992 0.074000 -1.115770 
0.065372 0.051441 -1.129056 
-0.021127 0.068175 -1.127419 
0.032608 0.066929 -1.109076 
-0.023218 0.067633 -1.121253 
0.071980 0.046513 -1.131216 
0.016544 0.072851 -1.117072 
0.000881 0.074133 -1.117087 
0.011751 0.073558 -1.120098 
-0.027090 0.066124 -1.126866 
-0.002695 0.073800 -1.121034 
-0.031332 0.062860 -1.132135 
0.057552 0.056439 -1.124682 
-0.012238 0.071965 -1.132778 
0.009597 0.075940 -1.127913 
-0.000472 0.075178 -1.125088 
0.015433 0.074798 -1.133062 
0.043166 0.064792 -1.135607 
-0.019435 0.069010 -1.137504 
0.015170 0.075164 -1.129391 
0.012255 0.075574 -1.138106 
0.038312 0.068088 -1.135617 
0.032378 0.069866 -1.141144 
0.029721 0.071544 -1.137550 
0.025049 0.073129 -1.134149 
-0.002180 0.074590 -1.133382 
0.034678 0.069170 -1.145986 
0.014750 0.073817 -1.144612 
0.024147 0.072007 -1.148378 
-0.021434 0.064042 -1.152423 
-0.027344 0.063965 -1.143244 
0.005296 0.075206 -1.134947 
-0.011276 0.070007 -1.146947 
0.050812 0.061070 -1.151239 
0.033682 0.067833 -1.153832 
0.049058 0.061650 -1.148253 
0.003939 0.074620 -1.142930 
0.009875 0.072028 -1.153579 
0.005412 0.072240 -1.150181 
-0.019583 0.063685 -1.156703 
0.024814 0.070524 -1.151871 
0.032222 0.066898 -1.160279 
0.014721 0.069670 -1.158864 
0.022444 0.067132 -1.162852 
-0.004860 0.067025 -1.158466 
0.023041 0.066290 -1.166519 
0.027998 0.068593 -1.157132 
-0.018090 0.061955 -1.160305 
0.008921 0.068951 -1.159767 
0.008269 0.062065 -1.174169 
0.006149 0.059714 -1.178405 
-0.002063 0.057580 -1.179058 
-0.038335 -0.034254 -1.073499 
-0.020406 -0.039224 -1.074493 
-0.034188 -0.036622 -1.081930 
-0.020033 -0.035041 -1.072656 
-0.003269 -0.040528 -1.060704 
-0.034507 -0.040270 -1.085482 
-0.024271 -0.039539 -1.076178 
-0.021077 -0.052356 -1.077896 
-0.007291 -0.047340 -1.066324 
-0.012650 -0.045198 -1.068055 
-0.034284 -0.045472 -1.086849 
-0.029070 -0.048267 -1.086449 
-0.010384 -0.048407 -1.068267 
0.025490 -0.051256 -1.056944 
-0.043384 -0.049060 -1.082734 
0.017680 -0.058070 -1.059175 
-0.041816 -0.058399 -1.082775 
-0.038765 -0.055016 -1.081490 
-0.047581 -0.048612 -1.083055 
0.036534 -0.057409 -1.057739 
0.030683 -0.062853 -1.063227 
-0.034965 -0.057085 -1.082216 
0.015003 -0.067198 -1.061267 
-0.029395 -0.053969 -1.082596 
0.041821 -0.068412 -1.066276 
0.036253 -0.065594 -1.064544 
0.008098 -0.054563 -1.059935 
-0.029607 -0.065958 -1.087762 
0.052445 -0.067671 -1.082943 
-0.008489 -0.089442 -1.073397 
0.001716 -0.085361 -1.067327 
0.010833 -0.081991 -1.063371 
0.045927 -0.099426 -1.091864 
0.042951 -0.102264 -1.093972 
0.019066 -0.094354 -1.067042 
-0.001918 -0.095697 -1.072543 
0.012133 -0.090338 -1.065455 
0.024404 -0.094877 -1.068404 
-0.008501 -0.101266 -1.079055 
0.001691 -0.100785 -1.074872 
0.048007 -0.101003 -1.087082 
-0.038813 -0.047978 -1.096359 
-0.050828 -0.026846 -1.101422 
-0.049071 -0.033950 -1.101565 
-0.059208 -0.025424 -1.116775 
-0.014603 -0.041931 -1.071539 
-0.028630 -0.036730 -1.078130 
-0.058673 -0.027541 -1.118370 
-0.054034 -0.034530 -1.109625 
-0.030144 -0.041360 -1.084037 
-0.027762 -0.046528 -1.077641 
-0.029315 -0.039622 -1.080930 
-0.048787 -0.041883 -1.081006 
-0.043023 -0.044749 -1.079824 
-0.044629 -0.038773 -1.077031 
-0.051449 -0.030745 -1.104498 
-0.054355 -0.031717 -1.107700 
-0.054217 -0.039287 -1.111503 
-0.062323 -0.037496 -1.133406 
-0.061199 -0.032477 -1.131182 
-0.054174 -0.043314 -1.114021 
-0.025836 -0.053355 -1.081521 
-0.028087 -0.048365 -1.079046 
-0.058516 -0.038573 -1.128126 
-0.059279 -0.041775 -1.126637 
-0.058169 -0.038045 -1.117699 
-0.060506 -0.048986 -1.124242 
-0.039621 -0.062440 -1.084326 
-0.057918 -0.053499 -1.126467 
-0.054314 -0.052257 -1.119921 
-0.035846 -0.056854 -1.095483 
-0.046827 -0.049801 -1.106398 
-0.033757 -0.062896 -1.093151 
-0.060980 -0.053294 -1.130772 
-0.059284 -0.057932 -1.129925 
-0.026781 -0.069337 -1.084836 
-0.031644 -0.065700 -1.090756 
-0.060286 -0.058495 -1.132972 
-0.057008 -0.067830 -1.126388 
-0.065441 -0.064145 -1.151872 
-0.032050 -0.077555 -1.092865 
-0.014618 -0.085248 -1.076769 
-0.040191 -0.074891 -1.103975 
-0.031862 -0.088666 -1.096295 
-0.037547 -0.092990 -1.107987 
-0.064939 -0.072834 -1.139449 
-0.014659 -0.095321 -1.079486 
0.040461 -0.098799 -1.087095 
-0.061327 -0.073040 -1.132837 
-0.048743 -0.078190 -1.115261 
-0.023219 -0.101032 -1.091975 
-0.021370 -0.093120 -1.084637 
-0.069209 -0.086545 -1.141500 
-0.059698 -0.098668 -1.132658 
-0.061571 -0.083359 -1.133083 
0.048310 -0.102213 -1.089801 
0.049114 -0.104717 -1.092791 
-0.018074 -0.103135 -1.087831 
-0.035844 -0.098743 -1.111666 
-0.054559 -0.082781 -1.124431 
-0.070484 -0.100706 -1.141668 
-0.066753 -0.022822 -1.126786 
-0.060327 -0.036306 -1.123574 
-0.061317 -0.025982 -1.125745 
-0.062389 -0.026581 -1.129043 
-0.062447 -0.025959 -1.137216 
-0.061630 -0.026198 -1.134196 
-0.060302 -0.034380 -1.129497 
-0.043296 -0.059469 -1.085287 
-0.037873 -0.063966 -1.086373 
-0.039583 -0.062401 -1.088841 
-0.059948 -0.048461 -1.149290 
-0.058179 -0.041721 -1.144956 
-0.058615 -0.042797 -1.149249 
-0.059320 -0.052447 -1.129010 
-0.061842 -0.054869 -1.148221 
-0.060399 -0.047615 -1.142045 
-0.061935 -0.058777 -1.140185 
-0.060611 -0.063764 -1.133084 
-0.065992 -0.066502 -1.155938 
-0.068751 -0.077251 -1.146324 
-0.066704 -0.069711 -1.149752 
-0.024667 -0.009878 -1.197601 
-0.038873 -0.019860 -1.190293 
0.015419 -0.034127 -1.191185 
0.020803 -0.030592 -1.196108 
0.014950 -0.046306 -1.196849 
0.011207 -0.051559 -1.184295 
0.010240 -0.050364 -1.182224 
0.011668 -0.044912 -1.187921 
0.014207 -0.042897 -1.195376 
0.011826 -0.048781 -1.191509 
0.012405 -0.054424 -1.190843 
0.015472 -0.066645 -1.177009 
-0.049920 -0.045869 -1.085232 
-0.043708 -0.057977 -1.088557 
-0.047881 -0.046551 -1.088634 
-0.034260 -0.064508 -1.089547 
-0.038535 -0.039131 -1.181091 
-0.034407 -0.040332 -1.184537 
-0.043009 -0.044539 -1.181209 
-0.039587 -0.058691 -1.188311 
-0.039549 -0.054041 -1.185898 
-0.047276 -0.063792 -1.183403 
-0.068667 -0.082072 -1.187433 
-0.055950 -0.078954 -1.192496 
-0.076361 -0.093867 -1.198989 
0.038673 -0.013087 -1.196064 
0.047322 -0.055129 -1.169418 
0.029244 -0.052806 -1.176771 
0.020425 -0.001121 -1.205225 
-0.004098 -0.004322 -1.205888 
-0.023857 -0.003776 -1.203169 
-0.008401 -0.003883 -1.204086 
0.033639 -0.010522 -1.199057 
0.017553 -0.009176 -1.201402 
0.016809 -0.012603 -1.203147 
0.014578 -0.009089 -1.200666 
-0.015224 -0.010490 -1.200757 
-0.013458 -0.010310 -1.200829 
-0.009837 -0.010500 -1.202634 
-0.022287 -0.012346 -1.201845 
-0.008865 -0.016018 -1.204254 
0.024228 -0.020179 -1.198136 
0.031844 -0.023447 -1.196345 
0.031866 -0.020453 -1.196376 
0.027261 -0.053572 -1.175652 
0.018094 -0.031298 -1.193529 
0.014681 -0.033139 -1.188004 
-0.030658 -0.039948 -1.185747 
0.032878 -0.030187 -1.198137 
-0.029111 -0.036686 -1.188077 
-0.044814 -0.044429 -1.178060 
-0.046840 -0.044566 -1.176282 
-0.059186 -0.048815 -1.167099 
-0.028309 -0.053966 -1.189713 
-0.028008 -0.050342 -1.187105 
-0.032814 -0.054626 -1.188613 
-0.035647 -0.055706 -1.188214 
-0.029297 -0.056418 -1.188326 
-0.031929 -0.060202 -1.191638 
-0.038899 -0.062289 -1.190036 
-0.036720 -0.059309 -1.188246 
-0.035665 -0.063325 -1.191650 
-0.019116 -0.068029 -1.190300 
0.013994 -0.066162 -1.176773 
-0.027816 -0.062468 -1.189863 
-0.041954 -0.069072 -1.189577 
-0.027372 -0.068314 -1.192182 
-0.016932 -0.085074 -1.198709 
-0.030518 -0.088251 -1.205485 
-0.028884 -0.077569 -1.197255 
-0.035773 -0.074207 -1.194733 
-0.059706 -0.094415 -1.206795 
-0.047784 -0.087328 -1.202072 
-0.035866 -0.051480 -1.187310 
0.080319 -0.019077 -1.165588 
0.084245 -0.020526 -1.158634 
0.075793 -0.014975 -1.173717 
0.078376 -0.019097 -1.171699 
0.071993 -0.029287 -1.168724 
0.066989 -0.029163 -1.174465 
0.071267 -0.063487 -1.142656 
0.035774 -0.004933 -1.200658 
0.014326 -0.003425 -1.204340 
0.055640 -0.009006 -1.187621 
0.056085 -0.009779 -1.188470 
0.025570 -0.011827 -1.199339 
0.021167 -0.009229 -1.199467 
0.022879 -0.009584 -1.198312 
0.031870 -0.058102 -1.175801 
0.063476 -0.014629 -1.182518 
0.036407 -0.017495 -1.198303 
0.061106 -0.018172 -1.187064 
0.064464 -0.021003 -1.182303 
0.010755 -0.015387 -1.203484 
0.036222 -0.020340 -1.196036 
0.010984 -0.020568 -1.199675 
0.062387 -0.024734 -1.179127 
0.065505 -0.025182 -1.174475 
0.054713 -0.020085 -1.188857 
0.013638 -0.022715 -1.200960 
0.042124 -0.018672 -1.193577 
0.062726 -0.030691 -1.176365 
0.027319 -0.023137 -1.199378 
0.029059 -0.026925 -1.196539 
0.061470 -0.032195 -1.177453 
0.041638 -0.032733 -1.182201 
0.050829 -0.037103 -1.175295 
0.029979 -0.039021 -1.194452 
0.024597 -0.038717 -1.196575 
0.064442 -0.045999 -1.160929 
0.055572 -0.048462 -1.170590 
0.053014 -0.050425 -1.171232 
0.029290 -0.043136 -1.192448 
0.075064 -0.050818 -1.143979 
0.034875 -0.053067 -1.179341 
0.025255 -0.053164 -1.177248 
0.027107 -0.051081 -1.175902 
0.028475 -0.056267 -1.176071 
0.053642 -0.054894 -1.169847 
0.069026 -0.050197 -1.152306 
0.024795 -0.052613 -1.182234 
0.023091 -0.053783 -1.182751 
0.068153 -0.067000 -1.144705 
0.021697 -0.052229 -1.181889 
0.025619 -0.053681 -1.179323 
0.022496 -0.056229 -1.185858 
0.020043 -0.053847 -1.191363 
0.021345 -0.056931 -1.186615 
0.021910 -0.052816 -1.190704 
0.026652 -0.056053 -1.182165 
0.021654 -0.054841 -1.186579 
0.028459 -0.060618 -1.178026 
0.054625 -0.076516 -1.155872 
0.029998 -0.069949 -1.172663 
0.025488 -0.068186 -1.180368 
0.044839 -0.083189 -1.160454 
0.022315 -0.077016 -1.173068 
0.027319 -0.087882 -1.167475 
0.047197 -0.070213 -1.163596 
0.054182 -0.096089 -1.150933 
0.065761 -0.066385 -1.148111 
-0.020884 -0.076927 -1.194760 
-0.000824 -0.065535 -1.182522 
-0.007227 -0.071692 -1.186187 
0.065982 -0.074111 -1.144155 
0.057970 -0.097964 -1.145874 
0.001333 -0.084705 -1.180536 
0.011892 -0.081977 -1.175330 
-0.009193 -0.082019 -1.190588 
0.043554 -0.101822 -1.154476 
0.013811 -0.095834 -1.170859 
0.013029 -0.087506 -1.173866 
0.052377 -0.101475 -1.149239 
-0.002897 -0.086400 -1.186623 
-0.009805 -0.086126 -1.194183 
-0.006677 -0.092113 -1.200004 
0.003359 -0.096825 -1.179966 
-0.000340 -0.094545 -1.188403 
-0.003989 -0.090400 -1.191610 
0.004475 -0.093192 -1.176350 
0.005238 -0.097455 -1.173587 
0.018345 -0.106153 -1.164204 
0.002023 -0.096994 -1.195517 
-0.002285 -0.093266 -1.194613 
-0.006161 -0.006662 -1.203244 
0.038681 -0.009641 -1.195905 
-0.000572 -0.023422 -1.202205 
0.004541 -0.019959 -1.200315 
0.006893 -0.021643 -1.199139 
0.071116 -0.072984 -1.112269 
0.074590 -0.073938 -1.118966 
0.075325 -0.070405 -1.115248 
0.064215 -0.079186 -1.116445 
0.065449 -0.076557 -1.115378 
0.060916 -0.073580 -1.107366 
0.069603 -0.076528 -1.124452 
0.061109 -0.096176 -1.120833 
-0.036803 -0.036437 -1.075897 
-0.031886 -0.035569 -1.076763 
-0.037114 -0.038237 -1.083495 
-0.039657 -0.039271 -1.078468 
-0.039227 -0.041118 -1.083812 
-0.039132 -0.045201 -1.083008 
-0.040687 -0.047724 -1.081285 
0.089878 -0.043412 -1.082994 
0.075681 -0.045087 -1.066890 
0.080656 -0.057543 -1.085685 
0.090391 -0.049276 -1.092230 
0.079137 -0.051100 -1.075631 
0.044740 -0.064809 -1.064119 
0.042264 -0.067506 -1.064158 
0.047484 -0.068936 -1.067844 
0.048184 -0.066319 -1.067317 
0.049920 -0.069353 -1.073334 
0.081894 -0.063320 -1.100500 
0.088102 -0.056300 -1.106216 
0.036036 -0.072060 -1.067112 
0.046778 -0.071514 -1.083202 
0.047586 -0.068772 -1.082647 
0.039325 -0.074385 -1.071854 
0.034127 -0.082496 -1.069664 
0.065887 -0.072952 -1.088973 
0.062132 -0.074287 -1.086621 
0.039835 -0.075647 -1.078317 
0.062022 -0.078920 -1.089761 
0.042817 -0.087748 -1.084363 
0.057847 -0.086672 -1.087698 
0.034007 -0.089311 -1.072013 
0.040356 -0.086578 -1.081059 
0.031283 -0.094534 -1.072994 
0.029788 -0.089212 -1.067678 
0.058560 -0.099824 -1.089654 
0.060824 -0.089540 -1.091753 
0.029428 -0.102706 -1.088200 
0.036121 -0.095940 -1.088827 
0.031262 -0.098032 -1.085134 
0.054020 -0.104315 -1.089051 
0.056470 -0.099168 -1.087578 
0.042188 -0.110690 -1.104406 
0.039717 -0.105291 -1.095353 
0.045716 -0.106297 -1.103728 
-0.041450 -0.043442 -1.079512 
0.054123 -0.047280 -1.056995 
0.050039 -0.056240 -1.058522 
0.057375 -0.058085 -1.063666 
0.060811 -0.051637 -1.062072 
-0.030351 -0.057276 -1.082913 
0.043649 -0.054870 -1.056137 
0.025411 -0.056661 -1.059017 
0.058379 -0.060880 -1.067684 
0.040030 -0.063686 -1.062559 
0.051978 -0.060965 -1.064457 
-0.027592 -0.064150 -1.084902 
-0.028698 -0.061095 -1.083727 
-0.033367 -0.064348 -1.084830 
-0.038109 -0.060981 -1.082582 
0.061755 -0.068772 -1.082573 
0.023985 -0.088591 -1.064881 
0.026581 -0.068666 -1.062195 
0.071665 -0.070302 -1.111339 
0.065226 -0.071321 -1.108711 
0.058044 -0.077667 -1.086117 
0.019393 -0.084564 -1.063109 
0.043532 -0.083944 -1.083676 
0.046768 -0.086134 -1.085282 
0.053888 -0.100038 -1.086627 
0.044466 -0.097581 -1.085799 
0.042937 -0.090776 -1.085980 
0.054047 -0.088136 -1.086289 
0.027243 -0.100821 -1.085192 
0.007503 -0.101718 -1.075209 
0.033231 -0.107876 -1.092959 
0.088870 -0.015512 -1.150764 
0.029427 -0.044184 -1.185858 
0.064032 -0.092350 -1.124555 
0.038150 -0.107809 -1.118254 
0.037085 -0.109599 -1.112882 
0.015226 -0.126161 -1.132909 
0.049928 -0.100004 -1.108468 
0.052003 -0.099854 -1.104821 
0.039844 -0.110851 -1.111633 
0.049291 -0.104349 -1.099333 
0.052438 -0.100627 -1.100761 
0.021338 -0.101948 -1.091570 
0.022180 -0.102797 -1.087897 
0.039749 -0.029588 -1.051016 
0.029597 -0.030211 -1.051801 
0.031023 -0.035257 -1.193383 
0.058979 -0.021811 -1.187175 
0.066378 -0.021823 -1.178651 
0.055841 -0.025750 -1.184272 
0.057153 -0.022998 -1.187000 
0.080013 -0.014900 -1.164541 
0.045551 -0.022501 -1.191124 
0.043169 -0.026075 -1.190573 
0.032173 -0.033604 -1.194300 
0.028995 -0.034891 -1.198521 
0.053202 -0.028124 -1.184368 
0.045911 -0.029359 -1.188027 
0.044348 -0.030681 -1.182421 
0.040709 -0.030667 -1.186487 
0.034748 -0.035112 -1.188227 
0.034419 -0.034168 -1.191760 
0.027745 -0.045877 -1.191702 
0.041561 -0.037617 -1.179861 
0.032075 -0.037802 -1.185549 
0.032527 -0.036577 -1.192104 
0.026534 -0.044211 -1.195614 
0.073520 -0.045731 -1.153175 
0.036178 -0.041766 -1.183728 
0.031923 -0.042047 -1.183556 
0.025268 -0.048617 -1.192451 
0.090444 -0.034185 -1.141634 
0.086818 -0.038165 -1.144026 
0.085546 -0.043361 -1.137994 
0.023330 -0.048653 -1.187537 
0.096874 -0.035669 -1.132274 
0.082679 -0.048985 -1.136866 
0.092337 -0.039046 -1.134243 
0.096978 -0.038209 -1.125697 
0.098257 -0.038242 -1.117806 
0.081596 -0.060607 -1.134319 
0.092742 -0.043305 -1.126066 
0.078653 -0.064253 -1.134489 
0.081602 -0.066348 -1.126728 
0.068774 -0.071637 -1.135480 
0.094738 -0.046737 -1.104575 
0.076688 -0.070686 -1.119478 
0.063919 -0.093668 -1.135300 
0.085053 -0.063335 -1.113771 
0.068110 -0.078349 -1.134768 
0.089486 -0.054987 -1.115360 
0.062739 -0.098706 -1.130877 
0.072183 -0.074589 -1.120500 
0.074533 -0.073253 -1.124274 
0.066845 -0.082825 -1.131165 
0.055749 -0.105880 -1.135853 
0.060429 -0.099888 -1.139585 
0.078869 -0.065748 -1.109697 
0.066389 -0.080384 -1.129321 
0.068001 -0.077110 -1.120148 
0.069254 -0.073546 -1.113858 
0.060069 -0.102807 -1.132513 
0.067274 -0.079512 -1.122375 
0.075310 -0.067693 -1.111071 
0.058452 -0.102385 -1.125420 
0.054700 -0.105261 -1.126464 
0.056786 -0.100730 -1.119726 
0.082017 -0.064667 -1.107000 
0.074035 -0.067125 -1.093470 
0.062948 -0.071622 -1.107403 
0.072816 -0.067847 -1.097456 
0.072171 -0.066825 -1.107472 
0.043111 -0.106541 -1.130238 
0.046953 -0.108269 -1.132863 
0.062547 -0.071703 -1.109761 
0.040392 -0.106793 -1.129724 
0.059819 -0.075257 -1.106911 
0.048919 -0.103805 -1.118539 
0.065141 -0.069416 -1.104828 
0.066115 -0.073957 -1.095776 
0.041763 -0.106472 -1.125231 
0.046444 -0.105769 -1.118975 
0.045478 -0.105904 -1.124257 
0.063139 -0.078877 -1.096859 
0.056989 -0.091192 -1.109067 
0.047295 -0.104745 -1.115063 
0.069323 -0.070648 -1.095511 
0.041841 -0.109527 -1.117223 
0.070999 -0.067347 -1.086086 
0.058180 -0.088667 -1.106384 
0.065220 -0.075363 -1.092081 
0.044048 -0.110074 -1.109361 
0.038514 -0.106013 -1.123316 
0.052368 -0.099379 -1.109219 
0.053747 -0.100720 -1.105854 
0.066518 -0.068097 -1.083386 
0.064006 -0.061006 -1.071737 
0.059592 -0.099857 -1.093142 
0.058384 -0.102859 -1.095748 
0.041502 -0.111588 -1.107556 
0.050272 -0.100552 -1.102874 
0.053490 -0.104286 -1.098155 
0.046930 -0.104749 -1.100428 
0.049155 -0.102975 -1.101949 
0.054965 -0.102536 -1.100699 
0.055338 -0.105677 -1.092221 
0.057674 -0.104072 -1.092637 
0.054096 -0.106378 -1.095437 
0.054936 -0.065022 -1.077512 
0.049190 -0.070097 -1.084871 
0.051439 -0.106470 -1.093345 
0.045415 -0.103416 -1.094640 
0.037383 -0.110126 -1.097899 
0.063793 -0.064359 -1.077061 
0.045038 -0.104346 -1.097165 
0.037592 -0.112118 -1.102247 
0.033180 -0.110242 -1.103857 
0.049655 -0.068230 -1.082323 
0.042425 -0.099651 -1.088346 
0.043801 -0.098929 -1.092025 
0.044259 -0.074145 -1.083159 
0.047110 -0.069589 -1.072672 
0.043108 -0.072899 -1.076255 
0.038389 -0.099959 -1.091720 
0.041665 -0.072747 -1.073305 
0.029770 -0.108302 -1.093214 
0.051280 -0.067295 -1.073541 
0.054821 -0.062719 -1.069325 
0.038291 -0.091874 -1.086115 
0.039156 -0.070804 -1.068532 
0.036445 -0.075349 -1.072589 
0.027819 -0.099328 -1.077649 
0.031166 -0.071686 -1.065215 
0.039436 -0.089886 -1.083285 
0.024851 -0.101198 -1.084343 
0.018168 -0.101747 -1.085095 
0.017226 -0.103021 -1.087428 
0.023487 -0.097921 -1.071435 
0.021598 -0.101116 -1.077524 
0.008700 -0.109031 -1.082788 
0.014027 -0.101986 -1.076476 
0.027560 -0.035628 -1.196864 
0.024970 -0.046420 -1.184354 
0.024634 -0.047304 -1.181504 
-0.004229 -0.243186 -1.150842 
-0.074212 -0.242459 -1.148570 
0.007211 -0.238469 -1.168459 
0.020972 -0.244751 -1.146091 
-0.043721 -0.233835 -1.181189 
0.028789 -0.240580 -1.161719 
-0.106517 -0.242585 -1.144593 
-0.104883 -0.235411 -1.173124 
-0.089852 -0.229116 -1.196173 
-0.078739 -0.238881 -1.161014 
0.045817 -0.227170 -1.209846 
0.062463 -0.236198 -1.179525 
-0.123939 -0.231028 -1.187341 
0.046491 -0.226375 -1.213807 
0.033890 -0.232385 -1.190816 
0.085691 -0.223975 -1.225707 
-0.156573 -0.232657 -1.178051 
0.068042 -0.220156 -1.238001 
-0.154193 -0.224994 -1.206539 
-0.171545 -0.227333 -1.197560 
-0.171413 -0.220199 -1.222518 
-0.037743 0.023441 -1.177280 
-0.034923 0.033005 -1.177978 
-0.042412 0.028589 -1.171996 
-0.041236 0.037952 -1.170378 
-0.038104 0.005073 -1.194175 
-0.035761 0.007463 -1.195448 
-0.071079 -0.005237 -1.121484 
-0.069182 -0.003957 -1.124556 
-0.071767 -0.008340 -1.118662 
-0.068790 -0.008261 -1.126246 
-0.066943 -0.007848 -1.104134 
-0.070531 -0.011727 -1.119688 
-0.065070 -0.009986 -1.106977 
-0.066637 -0.016806 -1.109720 
-0.058016 -0.009938 -1.093977 
-0.059845 -0.019463 -1.098971 
-0.008255 0.001739 -1.204016 
-0.025386 0.001556 -1.200405 
-0.018606 -0.006818 -1.202438 
-0.019871 -0.001478 -1.201851 
-0.037596 0.008981 -1.193220 
-0.033125 -0.000396 -1.196065 
-0.029015 0.001260 -1.199456 
-0.035877 0.001075 -1.193482 
-0.037529 -0.005196 -1.194113 
-0.036054 -0.002963 -1.195640 
-0.036154 -0.008593 -1.193766 
-0.025644 -0.014963 -1.198000 
-0.022502 -0.015029 -1.201869 
-0.036117 -0.010065 -1.189188 
-0.037479 -0.009419 -1.188462 
-0.028694 -0.019971 -1.197061 
-0.033607 -0.012265 -1.195410 
-0.023763 -0.017838 -1.199487 
-0.033101 -0.018908 -1.193798 
-0.032593 -0.017313 -1.196453 
-0.042560 -0.016632 -1.189240 
-0.030988 -0.023800 -1.195817 
-0.028357 -0.023938 -1.198137 
-0.038444 -0.023673 -1.191210 
-0.034723 -0.024284 -1.194417 
-0.058246 0.027436 -1.134316 
-0.060240 0.020906 -1.132130 
-0.038090 -0.027221 -1.189291 
-0.063728 0.018331 -1.132227 
-0.027013 -0.041913 -1.189221 
-0.045011 -0.028863 -1.177910 
-0.040276 -0.041038 -1.181255 
-0.043144 -0.037307 -1.177766 
-0.035084 -0.049348 -1.184861 
-0.067685 0.010794 -1.118968 
-0.041128 -0.045330 -1.184449 
-0.069036 0.016284 -1.123044 
-0.065659 0.015328 -1.111483 
-0.036859 -0.047723 -1.185982 
-0.047636 -0.037294 -1.173610 
-0.035775 -0.049935 -1.184878 
-0.048482 -0.043469 -1.176505 
-0.035080 -0.059559 -1.190710 
-0.046024 -0.047534 -1.179950 
-0.069493 0.004002 -1.120994 
-0.042045 -0.052346 -1.181265 
-0.048156 -0.049551 -1.178019 
-0.049624 -0.040076 -1.170478 
-0.040512 -0.053328 -1.182409 
-0.045331 -0.052927 -1.178051 
-0.047751 -0.051100 -1.175525 
-0.040256 -0.065756 -1.188744 
-0.034948 -0.067006 -1.191108 
-0.043496 -0.061803 -1.185045 
-0.053530 -0.041852 -1.165459 
-0.055334 -0.053253 -1.169304 
-0.057071 -0.052617 -1.167833 
-0.058775 -0.065435 -1.176892 
-0.061349 -0.049356 -1.164208 
-0.068839 -0.018287 -1.124167 
-0.060219 -0.076025 -1.187114 
-0.053652 -0.057996 -1.174844 
-0.060864 -0.059655 -1.166148 
-0.061818 -0.057534 -1.164674 
-0.060663 -0.025311 -1.122125 
-0.062957 -0.034946 -1.138573 
-0.061351 -0.040605 -1.140176 
-0.063074 -0.023470 -1.118979 
-0.063673 -0.043331 -1.136091 
-0.062646 -0.038853 -1.135621 
-0.059293 -0.039429 -1.125834 
-0.065653 -0.061067 -1.156656 
-0.064658 -0.064944 -1.160472 
-0.063079 -0.053246 -1.157329 
-0.062340 -0.046658 -1.138098 
-0.058203 -0.044338 -1.123138 
-0.062056 -0.066056 -1.171806 
-0.056885 -0.045241 -1.119680 
-0.061319 -0.052889 -1.139672 
-0.061305 -0.050645 -1.127452 
-0.070433 -0.076359 -1.159698 
-0.066420 -0.071496 -1.169139 
-0.071078 -0.080835 -1.180733 
-0.049993 -0.046754 -1.172103 
-0.050173 -0.045142 -1.175479 
-0.080337 -0.089678 -1.180010 
-0.081946 -0.091307 -1.173853 
-0.034776 -0.010148 -1.191605 
-0.031011 -0.010100 -1.194668 
0.006089 -0.210417 -1.269190 
-0.105865 -0.209614 -1.265372 
-0.016839 -0.213812 -1.255917 
0.059280 -0.220132 -1.237186 
0.043948 -0.219197 -1.238571 
-0.034595 -0.225653 -1.211453 
0.028047 -0.222349 -1.227440 
-0.114325 -0.210918 -1.260444 
-0.002720 -0.233288 -1.187082 
-0.127755 -0.215055 -1.244006 
-0.111412 -0.220218 -1.226988 
-0.092526 -0.220895 -1.225811 
0.025626 -0.103821 -1.088213 
0.003749 -0.114108 -1.090215 
-0.000920 -0.115396 -1.094165 
-0.006418 -0.107164 -1.084134 
-0.014753 -0.113539 -1.100393 
0.027419 -0.126853 -1.175414 
0.025528 -0.117556 -1.185217 
-0.121318 -0.148693 -1.148331 
-0.127912 -0.125571 -1.158428 
-0.137065 -0.124826 -1.161960 
-0.138430 -0.134729 -1.152598 
-0.122396 -0.143589 -1.149790 
-0.136806 -0.142162 -1.149374 
-0.140985 -0.132640 -1.154611 
-0.147973 -0.138420 -1.153415 
-0.150360 -0.132391 -1.160815 
-0.143443 -0.138832 -1.151408 
-0.144660 -0.145160 -1.150117 
-0.138759 -0.150562 -1.148250 
-0.154271 -0.138129 -1.159359 
-0.152376 -0.147136 -1.154288 
-0.156844 -0.144694 -1.158763 
-0.123978 -0.159667 -1.147458 
-0.146789 -0.151619 -1.151090 
-0.139622 -0.165239 -1.151115 
-0.041957 -0.098799 -1.116643 
-0.074878 -0.097213 -1.146125 
-0.021044 -0.110605 -1.103851 
-0.047796 -0.091742 -1.117761 
-0.076288 -0.102439 -1.146138 
-0.047706 -0.108543 -1.125475 
-0.080608 -0.100099 -1.153382 
-0.088289 -0.105042 -1.159834 
-0.060570 -0.114193 -1.136411 
-0.058398 -0.108738 -1.133880 
-0.079193 -0.120067 -1.145802 
-0.073236 -0.120896 -1.142646 
-0.085183 -0.108468 -1.153627 
-0.102745 -0.106225 -1.170766 
-0.091320 -0.114343 -1.155692 
-0.114321 -0.121955 -1.160235 
-0.103667 -0.119338 -1.159737 
-0.116144 -0.113465 -1.169933 
-0.085005 -0.117042 -1.150211 
-0.075242 -0.128396 -1.141416 
-0.096256 -0.120651 -1.154888 
-0.087215 -0.136455 -1.139856 
-0.099832 -0.135288 -1.145056 
-0.113527 -0.141032 -1.149137 
-0.085046 -0.142809 -1.136704 
-0.106734 -0.151579 -1.144512 
-0.116374 -0.129313 -1.155177 
-0.085327 -0.162569 -1.133869 
-0.115690 -0.161160 -1.145655 
-0.122100 -0.167755 -1.146745 
-0.138823 -0.121079 -1.169629 
-0.147754 -0.125388 -1.170727 
-0.081378 -0.092572 -1.165326 
-0.076195 -0.091206 -1.152994 
-0.075984 -0.085115 -1.165768 
-0.086892 -0.094934 -1.187270 
-0.087586 -0.097671 -1.167792 
-0.092885 -0.099555 -1.172469 
-0.094023 -0.103785 -1.166694 
-0.102318 -0.103779 -1.194369 
-0.106209 -0.105696 -1.177534 
-0.078471 -0.089790 -1.188303 
-0.082823 -0.094136 -1.193090 
-0.141978 -0.121447 -1.185527 
-0.130498 -0.116802 -1.197423 
-0.147941 -0.127034 -1.190469 
-0.142250 -0.135879 -1.212321 
-0.136627 -0.135461 -1.217419 
-0.145193 -0.128371 -1.197896 
0.005589 -0.099960 -1.170920 
-0.068410 -0.091147 -1.200270 
-0.024309 -0.087317 -1.204265 
-0.059692 -0.106418 -1.217423 
-0.044424 -0.114749 -1.223246 
0.005480 -0.105301 -1.216318 
-0.006562 -0.107491 -1.224796 
-0.092671 -0.122066 -1.233118 
-0.089877 -0.111534 -1.223106 
-0.018461 -0.123220 -1.239012 
-0.040531 -0.131990 -1.236271 
-0.016695 -0.139361 -1.247459 
-0.102927 -0.128119 -1.232928 
-0.048769 -0.130888 -1.234152 
-0.096427 -0.132592 -1.238332 
0.009811 -0.133884 -1.241472 
0.004580 -0.111197 -1.162745 
0.075682 -0.144252 -1.204624 
0.002983 -0.098931 -1.202998 
0.005824 -0.108788 -1.164790 
0.001616 -0.098967 -1.186759 
0.002468 -0.103632 -1.183917 
-0.006475 -0.098802 -1.211038 
0.014380 -0.104819 -1.194942 
0.002921 -0.100811 -1.208530 
0.028654 -0.109902 -1.203215 
0.046035 -0.118223 -1.208937 
0.021595 -0.108171 -1.210939 
0.061805 -0.126463 -1.200079 
0.054893 -0.131146 -1.217606 
0.059482 -0.126792 -1.206978 
0.066431 -0.136872 -1.211757 
0.022375 -0.143611 -1.243660 
0.048889 -0.135568 -1.224840 
0.064866 -0.143252 -1.219057 
0.038333 -0.111674 -1.118037 
0.011464 -0.116039 -1.180525 
0.029763 -0.115346 -1.100293 
0.032866 -0.112341 -1.101766 
0.023719 -0.119172 -1.104801 
0.047378 -0.120789 -1.185282 
-0.000626 -0.126046 -1.162673 
0.015106 -0.126601 -1.172105 
-0.007265 -0.132725 -1.148976 
-0.003242 -0.129946 -1.157213 
0.027207 -0.112509 -1.192578 
-0.004658 -0.133139 -1.153027 
-0.000461 -0.129885 -1.159653 
-0.006399 -0.140833 -1.142052 
-0.000041 -0.142670 -1.144874 
0.059477 -0.134710 -1.172599 
0.055342 -0.130024 -1.175268 
0.020718 -0.151555 -1.158852 
0.022748 -0.138079 -1.165425 
0.057577 -0.142860 -1.167849 
0.002458 -0.148561 -1.144235 
0.007718 -0.159105 -1.144976 
0.014944 -0.163389 -1.147960 
0.006911 -0.176952 -1.136232 
0.032096 -0.176286 -1.147786 
0.066604 -0.151482 -1.170289 
0.020463 -0.104070 -1.090994 
0.026982 -0.112319 -1.095722 
0.008424 -0.114100 -1.090234 
0.011621 -0.111665 -1.089701 
0.023901 -0.117261 -1.101982 
-0.029715 -0.110128 -1.121281 
-0.016346 -0.119699 -1.134952 
-0.011978 -0.129506 -1.143232 
0.002502 -0.120262 -1.168962 
-0.012958 -0.137406 -1.143044 
-0.013718 -0.134154 -1.142984 
-0.019020 -0.138501 -1.139420 
0.022442 -0.133127 -1.168409 
-0.006263 -0.147549 -1.138518 
-0.018887 -0.143684 -1.135978 
0.033539 -0.148768 -1.164255 
-0.017443 -0.151097 -1.133539 
0.027721 -0.137205 -1.168367 
0.060751 -0.151692 -1.167117 
0.040424 -0.155514 -1.162343 
0.053465 -0.148079 -1.165271 
-0.008030 -0.173884 -1.131456 
0.037338 -0.230548 -1.197229 
0.035599 -0.231311 -1.190807 
-0.002450 -0.166325 -1.136196 
-0.021297 -0.132568 -1.139230 
-0.023428 -0.126649 -1.135752 
-0.002627 -0.119810 -1.146570 
0.003390 -0.126088 -1.122845 
0.038279 -0.108587 -1.153176 
0.054649 -0.103776 -1.143589 
0.036871 -0.115165 -1.142912 
0.011630 -0.118465 -1.153163 
0.031728 -0.114145 -1.151237 
0.018572 -0.112901 -1.158624 
0.048717 -0.108964 -1.136799 
0.025413 -0.121668 -1.136962 
0.031630 -0.118223 -1.134579 
0.029503 -0.117454 -1.146627 
0.036014 -0.114798 -1.133054 
0.033468 -0.116755 -1.131393 
0.038856 -0.107029 -1.125762 
-0.008759 -0.120819 -1.141646 
0.036854 -0.113740 -1.110955 
0.036477 -0.115206 -1.114484 
0.031280 -0.119657 -1.125911 
0.033663 -0.116393 -1.122596 
0.037749 -0.108870 -1.112921 
-0.008054 -0.119445 -1.139760 
0.002829 -0.122825 -1.142490 
0.036135 -0.109079 -1.109617 
0.018222 -0.129732 -1.123800 
0.022999 -0.127504 -1.126613 
0.035075 -0.115869 -1.109535 
0.025574 -0.126608 -1.121041 
-0.013734 -0.117350 -1.134361 
0.014151 -0.130048 -1.120706 
0.022863 -0.127271 -1.113783 
0.017278 -0.130023 -1.115799 
0.020743 -0.129468 -1.120367 
0.029371 -0.119453 -1.114584 
-0.006892 -0.121722 -1.131262 
0.020069 -0.124104 -1.105413 
0.009713 -0.129525 -1.112641 
0.017001 -0.114655 -1.095244 
0.022963 -0.103552 -1.094068 
-0.027653 -0.109026 -1.119470 
-0.016422 -0.117030 -1.124269 
0.016924 -0.127163 -1.106816 
0.013478 -0.128168 -1.107437 
-0.007444 -0.122152 -1.116482 
0.011707 -0.120659 -1.096669 
0.009040 -0.126702 -1.104300 
0.003581 -0.126419 -1.108626 
-0.016608 -0.115863 -1.109278 
0.016345 -0.103008 -1.079989 
0.010728 -0.110992 -1.087555 
-0.004625 -0.247987 -1.132587 
-0.015301 -0.247030 -1.129613 
0.016756 -0.245363 -1.140647 
0.008063 -0.245650 -1.134840 
-0.023427 -0.244090 -1.145378 
0.007740 -0.247133 -1.136432 
-0.040844 -0.247041 -1.133075 
-0.030731 -0.247877 -1.131307 
-0.055363 -0.247041 -1.132490 
-0.076573 -0.246509 -1.132400 
-0.099950 -0.244257 -1.140345 
0.022500 -0.052077 -1.178636 
0.060075 -0.234958 -1.178880 
0.079559 -0.234290 -1.184948 
0.087360 -0.230652 -1.200258 
0.050233 -0.234213 -1.184431 
0.046864 -0.232840 -1.187198 
-0.121173 -0.235112 -1.168961 
-0.117911 -0.238147 -1.161574 
-0.119158 -0.236917 -1.162597 
-0.133220 -0.215540 -1.172631 
-0.126198 -0.222134 -1.182711 
-0.124558 -0.220315 -1.179532 
-0.126408 -0.216042 -1.179320 
-0.134496 -0.215290 -1.173086 
-0.135368 -0.230705 -1.181002 
-0.129475 -0.222335 -1.180119 
-0.126848 -0.226477 -1.184171 
-0.135994 -0.232191 -1.182487 
-0.162328 -0.229826 -1.179309 
-0.123619 -0.231841 -1.181992 
-0.129231 -0.230073 -1.185543 
-0.127378 -0.230638 -1.188462 
-0.168766 -0.227026 -1.185479 
-0.169945 -0.228765 -1.191838 
-0.158857 -0.232644 -1.179173 
-0.166363 -0.230222 -1.185018 
-0.170383 -0.228055 -1.189813 
-0.020171 -0.114680 -1.115580 
-0.122718 -0.120685 -1.213021 
-0.010699 -0.209629 -1.271186 
-0.005177 -0.208251 -1.271246 
0.023950 -0.213304 -1.260984 
-0.093668 -0.206826 -1.270262 
0.050057 -0.219997 -1.234838 
-0.139475 -0.207515 -1.233687 
-0.031879 -0.206372 -1.276416 
-0.027049 -0.207766 -1.275683 
0.016116 -0.210954 -1.266268 
-0.018834 -0.211130 -1.264074 
-0.119900 -0.209119 -1.257716 
0.047071 -0.221077 -1.232811 
-0.124958 -0.211934 -1.250963 
-0.120940 -0.212270 -1.254939 
-0.134098 -0.218133 -1.233319 
-0.135160 -0.216385 -1.233781 
-0.137318 -0.217832 -1.233287 
-0.153600 -0.216628 -1.237404 
-0.173895 -0.218442 -1.218415 
-0.174358 -0.221899 -1.212599 
-0.124629 -0.226736 -1.180937 
-0.119790 -0.112442 -1.174008 
-0.174052 -0.225226 -1.202122 
0.035239 -0.146679 -1.239455 
0.028461 -0.121990 -1.226912 
0.049067 -0.123148 -1.214260 
0.046380 -0.127636 -1.175032 
0.035285 -0.131646 -1.172351 
0.052573 -0.138621 -1.168849 
0.029014 -0.132556 -1.171126 
0.038794 -0.230004 -1.196186 
0.037744 -0.228958 -1.195631 
-0.066052 -0.245228 -1.130014 
-0.074834 -0.243799 -1.130066 
0.018225 0.033190 -1.195428 
0.023917 0.027408 -1.194538 
0.041005 0.004173 -1.199519 
0.035898 0.003564 -1.201031 
0.023817 0.008397 -1.205016 
0.027891 0.004622 -1.201993 
0.029860 0.008051 -1.203089 
0.031817 -0.008986 -1.197619 
0.018078 -0.007729 -1.200809 
0.008660 -0.010235 -1.201330 
-0.011790 0.024630 -1.195184 
0.031582 0.004501 -1.203051 
0.032689 0.001717 -1.201372 
0.022460 0.003800 -1.204468 
0.038465 -0.004088 -1.201338 
0.043199 -0.000497 -1.200689 
-0.017686 0.031381 -1.189711 
0.016125 0.003115 -1.203908 
0.015572 0.005816 -1.206139 
0.035212 -0.002227 -1.201277 
0.006576 0.007884 -1.206453 
0.049441 -0.001574 -1.197278 
-0.009849 0.022942 -1.195293 
0.057989 -0.002433 -1.192019 
0.062254 -0.002676 -1.191056 
0.058151 -0.006709 -1.189613 
0.030677 -0.006250 -1.202251 
0.009030 0.007071 -1.205314 
0.010949 0.003743 -1.205678 
0.004326 0.005272 -1.206401 
0.001229 0.007766 -1.206175 
0.052696 -0.007693 -1.192186 
0.052691 -0.005520 -1.194607 
0.024827 -0.002749 -1.203933 
0.064122 -0.007760 -1.187702 
0.041868 -0.008702 -1.195305 
0.038382 -0.006719 -1.199096 
0.058330 -0.009938 -1.185447 
0.047297 -0.005555 -1.194448 
0.026303 -0.005113 -1.203166 
0.027239 -0.007681 -1.198275 
-0.003383 0.003165 -1.203368 
0.000087 0.003405 -1.205276 
0.024138 -0.009386 -1.198611 
0.020355 -0.006996 -1.203745 
0.083010 -0.012185 -1.165293 
0.069966 -0.008855 -1.180198 
-0.036660 -0.036788 -1.183888 
-0.010736 0.003667 -1.205045 
0.013392 -0.006436 -1.204851 
0.003505 -0.003019 -1.204887 
0.008421 -0.003590 -1.206096 
-0.010894 0.000210 -1.203351 
-0.013287 0.006034 -1.204055 
0.074920 -0.012883 -1.171710 
0.016682 -0.006232 -1.203186 
0.043268 -0.016155 -1.195903 
0.043291 -0.013171 -1.196770 
0.014729 -0.007854 -1.203306 
0.000718 -0.004633 -1.205979 
0.009320 -0.008366 -1.204110 
0.007990 -0.009056 -1.201801 
0.004580 -0.005640 -1.204240 
0.001708 -0.007856 -1.204309 
0.026911 -0.014402 -1.199725 
0.031307 -0.014220 -1.200311 
0.052150 -0.017286 -1.189930 
0.049692 -0.019050 -1.190761 
-0.018535 0.004030 -1.204293 
0.001570 -0.010044 -1.202289 
-0.002587 -0.007761 -1.204295 
-0.022270 0.003693 -1.203036 
0.046961 -0.018603 -1.193509 
-0.015340 -0.004097 -1.204956 
0.074920 -0.020779 -1.175485 
0.070439 -0.023461 -1.177187 
0.044770 -0.020651 -1.192188 
-0.029107 0.004138 -1.200800 
-0.025045 0.004578 -1.200676 
-0.004941 -0.007818 -1.201498 
0.031691 -0.017764 -1.199037 
0.009775 -0.018384 -1.202756 
0.014769 -0.017639 -1.201068 
-0.006089 -0.008743 -1.200796 
-0.008810 -0.007979 -1.203730 
0.024917 -0.017665 -1.199725 
-0.033091 0.004407 -1.198570 
0.021723 -0.017898 -1.201333 
